# .PCD v0.7 - Point Cloud Data file format
VERSION 0.7
FIELDS x y z
SIZE 4 4 4
TYPE F F F
COUNT 1 1 1
WIDTH 1537
HEIGHT 1
VIEWPOINT 0 0 0 1 0 0 0
POINTS 1537
DATA ascii
-17.466076 86.335602 -15.786613
11.180873 41.971138 37.075405
36.248734 22.735676 -15.247808
-13.73328 86.048134 -19.05843
-25.920166 -70.44558 30.989309
-32.415966 -98.800003 3.2354646
12.014171 41.199997 9.1472569
38.693657 2.6034222 9.1531086
-4.8595147 48.641022 -36.591076
29.187439 42.062538 25.673401
38.398159 33.42247 11.208664
8.1197605 31.149975 -38.321079
10.853162 70.212135 -23.902773
7.2253609 17.611315 -38.583733
-0.16935587 -79.726227 40.132
-28.716221 -21.757109 -26.859348
26.093111 41.200001 -3.5388162
19.606846 85.269928 11.010727
-1.4349787 -76.234055 40.132
-13.650374 29.493582 37.815163
10.224321 98.800003 -1.8729304
4.4235854 91.617561 22.658752
-10.137698 82.800003 5.4363818
-34.783028 -67.237282 19.832973
11.876966 39.298412 -37.21772
6.382494 -98.800003 -28.327257
-38.812107 12.864061 -8.1972151
-15.737316 98.800003 -7.9150896
-7.1783361 -98.800003 -12.138168
-22.265862 48.545837 -29.183182
-34.696907 14.136406 20.021551
-8.7694597 -98.800003 29.060356
26.836315 -46.290344 -28.871315
29.729641 32.119743 -25.532505
-12.501369 96.222824 -19.858473
14.712438 41.199997 -8.8918524
39.708759 -67.296555 2.0919352
7.3700404 41.200001 -29.344566
35.383308 -66.36171 -17.142782
-21.487083 88.403824 9.6960831
-4.2693601 47.506123 36.052979
-29.580101 43.718971 23.927416
22.718822 30.780918 -31.880512
-21.884323 41.200001 -8.1974087
-11.600832 -85.798798 38.417046
39.010685 -19.548853 -5.8698335
-28.026968 -14.583101 -27.654926
38.989838 -29.308426 -6.0148625
2.0449514 18.113003 40.132
23.723373 -98.800003 8.3929081
19.687729 -96.154572 -33.82835
25.078344 41.200001 -25.726788
-33.79113 -3.3926105 22.004879
10.680719 -53.628723 -37.569016
19.85206 83.509064 -10.467596
-14.020555 41.929955 -37.307461
0.95754194 58.477081 -31.910437
-30.388142 -61.743412 -24.929522
-9.3765497 -92.435669 39.07024
0.75726151 -3.1880932 -39.053993
-39.387794 -51.481453 -4.1926427
-30.581562 2.8203907 -24.706264
38.453579 23.636234 -9.7451601
19.551683 41.200001 9.3788328
-39.505917 -30.166929 4.4489484
-4.3224812 -98.800003 0.22715443
9.1971264 82.800003 13.980683
-6.630837 98.800003 7.5677257
-18.102341 -9.2834415 -34.935188
34.10939 13.704475 -19.932201
-38.028732 -2.9497013 12.726038
33.550098 41.200001 13.571742
-7.8057127 -98.800003 -0.37694147
-10.492601 23.526051 -37.66449
-26.534218 41.200001 17.105932
38.364876 16.658117 11.440197
-37.611225 -57.578964 -12.562057
25.555664 -98.800003 -7.6016612
32.844128 41.199997 13.908825
-33.901806 -81.442665 -20.683575
4.4681864 82.800003 -13.388578
20.225967 59.219627 23.155685
3.1021554 41.200005 -23.186337
-31.110933 -75.95253 25.17388
34.068729 -63.479282 -20.021229
39.307442 -76.77829 4.8835464
-8.9593935 41.200001 11.039076
-10.587672 41.200001 -9.7464838
27.067886 61.008106 -13.209741
-39.156696 15.950447 6.8781857
2.3435473 41.200001 28.577494
11.641722 -14.104088 -37.286797
10.571307 1.334053 -37.601143
-6.8527985 4.5550861 -38.733372
-14.811848 34.930618 37.474079
-37.289513 -21.029495 -13.266424
11.384171 98.800003 5.2660594
-5.7601314 81.425995 -9.1257486
-33.727345 32.382343 22.144541
10.902977 51.254532 -33.578568
3.0530846 41.200001 -29.77969
18.704729 41.200005 -32.617176
9.1147346 -98.800003 -12.535612
-30.880928 -1.379488 25.439337
37.896893 17.457264 12.716944
-37.449211 -51.207947 -12.916769
-20.829863 41.200001 12.840359
-39.284756 -44.514118 -4.9093943
-29.780867 41.200005 22.295404
7.415565 41.200005 -30.330235
-34.366074 47.047184 12.913708
-25.964951 41.200005 -18.644648
36.285362 -71.705627 -15.167608
-14.189878 41.200005 4.6555367
-4.6945357 16.367743 -39.053997
27.874149 61.395271 -10.983926
-34.275742 -2.8293457 20.94375
-33.718323 -60.703781 22.164297
29.511175 49.133602 20.004253
33.979977 41.200001 4.3499665
-2.2878981 -24.86112 40.132
-5.29599 82.800003 -11.562351
-9.9788589 98.800003 14.907793
22.914686 -68.158356 -31.75465
-0.14609425 -98.800003 -33.928062
-5.8167691 82.800003 -14.434183
3.3459849 -98.800003 7.1367803
25.34446 52.809341 22.060322
20.850178 63.51593 19.229027
-9.6125221 -86.964676 39.000942
-15.91822 -98.800003 29.726439
8.6099977 0.7406311 -38.177113
39.008408 -56.289612 6.9636841
28.781696 47.181572 22.308025
-25.017435 -34.195091 -30.491421
-19.50209 41.200001 22.874577
-3.574825 -95.652779 40.132
-37.034622 -41.136131 -13.824493
-15.693657 74.601753 -18.988409
-3.6732657 50.818329 -35.55497
-24.375042 -46.083282 31.982239
8.0417528 79.116043 -20.443661
-32.610161 -4.4185638 -22.364735
4.4145498 -49.261433 40.132004
38.942348 -15.18396 -6.3452086
-4.2443485 34.088902 40.132004
-30.473553 -67.345581 25.909496
-33.910023 26.344593 21.744549
14.057829 98.800003 -14.084202
35.656883 -63.205734 17.621746
-26.510796 -1.854845 30.483015
-36.250793 -98.800003 -8.2177353
-2.6015944 41.200001 -19.65197
27.919828 28.379105 28.698977
-9.5374565 98.592575 21.523451
6.2990093 98.800003 16.386112
-2.358192 20.957386 40.132
16.004845 41.200001 24.692122
-39.273827 -61.55328 6.0634027
-18.014774 41.200001 5.052784
-24.838549 35.976814 -30.606379
24.921131 -78.281082 -30.465269
30.549009 41.200001 -20.287632
3.3118265 -98.800003 -27.607456
-27.666985 55.681396 -18.78694
31.352732 -44.921867 24.737507
5.3391342 -12.949227 40.132
28.783241 41.200001 -20.048594
21.388523 20.683716 33.813389
-7.8080654 82.209351 22.036369
12.411111 53.673763 -31.922256
-36.290653 41.324177 15.014203
-2.5250521 12.465851 40.132
33.912395 -53.679596 21.441547
-4.9469681 4.1229372 40.132
-28.480276 -59.533157 28.209988
-3.2640669 -98.800003 -10.79269
22.115101 -59.608826 33.346478
19.816113 78.170158 -8.7020168
-26.516068 -76.739487 30.476927
-39.724171 -56.915691 -1.8527439
13.562984 41.200001 -12.650282
-32.198715 26.32637 23.918447
-4.0079494 54.548332 -33.779991
-7.9799142 -91.348404 39.480385
-8.5756969 51.879272 -34.028683
-23.964611 -28.591484 -31.167988
9.873457 41.199997 -15.606521
33.185081 -88.010506 -21.545029
33.068459 52.923637 7.4009552
-11.142003 42.215263 -38.013287
-38.205315 -71.289307 12.33939
38.862598 4.1268463 7.9779587
-12.683446 81.436615 -19.740227
38.710114 43.701721 -1.3034588
-7.846581 -4.9407415 39.519539
18.508198 78.143608 -11.600568
27.561398 41.200001 26.253948
34.652679 -47.490498 19.820597
14.566612 81.426003 16.734098
11.54242 81.426003 -15.490533
-26.626675 -20.081257 30.349272
28.656021 -42.00634 -26.771431
10.388608 46.784378 -35.971794
8.1121988 45.941647 -37.062939
-6.13551 82.800003 14.426581
-36.234268 -52.382202 -15.57681
-3.1506548 -13.289165 40.132
-12.31516 98.800003 1.1516461
-11.074177 -7.1650696 -37.493698
29.673584 -26.145552 -25.597191
20.744732 41.199997 -26.470676
5.4082503 81.426003 22.125786
-37.79805 -80.984955 -12.153017
38.384937 4.2829418 11.300636
11.771424 72.340843 -22.081793
33.784748 41.200001 10.174634
-27.946743 -14.839142 -27.747526
-0.81319833 -89.622513 40.132004
-23.154114 95.562965 4.7218223
36.493896 -91.809685 -14.710979
26.808155 40.717522 -28.903811
-38.580132 -96.837502 -9.8108654
-14.840578 81.426003 0.69097763
-4.3079286 82.800003 -14.618032
-19.413551 58.980011 -25.242287
-20.165161 -55.232483 -33.609581
-27.114685 25.052074 -28.707937
23.990973 -98.800003 1.8406001
2.246136 41.200001 -22.008741
26.524303 -98.800003 -9.322607
-24.911057 10.94602 -30.559784
-39.882805 -41.529865 1.8272414
-22.519289 -8.0048904 33.174778
-16.777552 -48.682522 -35.786522
-14.84788 42.40889 35.751534
-39.750954 -55.190845 2.7444224
-7.8775148 98.800003 -14.312588
24.901615 41.200001 10.988358
-4.7187319 -98.800003 -23.002071
-18.949657 41.200001 -15.424959
17.941879 13.192045 36.028267
-31.303974 -17.763592 -23.872416
-16.964153 41.200005 -27.786177
37.717674 -71.110733 -12.031361
21.932119 41.200001 26.371881
28.227093 63.697216 -4.669765
39.718342 -40.149979 -0.9472636
-6.9066262 28.914268 -38.717567
-4.0996561 41.200001 5.8391771
37.853668 -92.771095 12.811578
16.286491 81.426003 -1.8157964
7.4704437 -98.800003 38.162163
14.507807 28.110813 -36.445129
37.245834 -27.180202 14.142512
-11.112045 -98.800011 2.7938967
39.065487 33.229156 6.5666332
-19.213432 29.458843 -34.221184
-20.011307 -98.800003 15.968358
34.233269 -30.287725 -19.66095
-21.10598 81.381058 1.3869764
31.912952 36.308506 24.091026
16.578918 -80.519829 -35.82613
20.07819 -98.800003 7.4775095
5.418458 -41.118355 40.132
-2.9002495 41.200001 -0.77219075
-37.25666 -14.890667 -13.338352
13.006867 91.768982 18.695742
13.892956 24.813257 37.703697
6.8692217 -69.679565 -38.688316
4.3636103 -98.800003 -28.046778
33.638512 -42.295303 22.041252
-21.820955 41.200001 13.846045
-10.427522 81.426003 -13.201075
38.663231 -60.129044 9.3647804
-10.492773 -51.578644 38.742443
-28.277111 -98.800003 -11.202446
-38.130741 -58.677788 -11.424607
3.7648854 41.199997 11.76865
23.724949 56.654095 21.050068
25.249111 68.000809 -8.883996
7.6373649 41.199997 7.9548545
38.84663 42.402073 -4.8773961
-15.074304 42.624893 -36.657127
1.4624593 -98.800003 -10.999619
31.196072 -70.659576 -23.840286
-38.78867 -73.722366 9.4382324
6.820991 41.200001 8.4860735
-38.227894 42.716167 -7.5087695
32.130802 11.580256 -22.761637
-29.694834 -7.9705143 26.808235
11.186314 -45.29084 -37.42054
32.011677 -62.289219 -22.899105
25.330078 -71.10994 31.280474
-28.242886 31.352831 28.483963
-38.526787 -3.7156353 11.259941
8.3521709 -48.618248 39.330833
-20.170084 -63.431225 -33.606419
12.282968 -73.180786 38.176491
-12.910242 98.800003 -7.2258353
-4.758604 66.26545 27.017611
-2.8322897 41.200005 -15.621556
-4.2423983 41.200001 24.745127
-5.804307 -62.798729 -39.041279
-39.621613 -0.86528969 3.6441469
34.921978 37.50563 19.230921
-30.308224 -63.137688 26.100309
-27.307718 -98.800003 -25.597038
19.28018 -81.690964 35.168251
39.049717 -55.093163 6.6763411
0.68183708 -14.830591 -39.054001
2.2632847 41.200001 -10.966681
-18.692244 48.60067 30.370831
19.151489 -57.928703 35.25095
-26.169939 -85.179398 -29.750801
17.194687 98.800003 5.091619
37.56435 -13.00882 13.445086
-3.3975039 98.800003 9.4625912
17.479485 26.397701 36.325413
-39.278046 -97.406639 6.0340185
34.43224 -22.329407 20.303276
-28.924261 64.650124 -1.8030604
21.491503 98.800003 0.32950786
-2.7552295 -45.020012 40.132
39.095646 34.731319 -5.278842
17.121307 -77.282898 -35.477577
2.812145 -19.705332 -39.054001
21.319794 41.200001 -19.7047
-35.11721 -43.895607 -18.02253
-36.588242 10.945408 -14.801807
0.21610837 41.200001 -21.615084
-7.6616154 -91.848358 39.573856
-5.0111732 -95.388985 -39.053997
23.876286 -10.079971 -31.136707
-16.559433 77.598328 15.083365
39.921623 -72.932457 0.46682352
10.186924 3.0781956 -37.714027
-21.335934 -34.523418 33.935226
-4.31144 98.800003 -18.105375
33.740322 14.754763 -20.740324
-38.676998 -93.286957 -9.1370296
-14.425838 98.800003 -8.2063551
34.718632 -82.582169 19.676176
-3.7736869 -92.108269 -39.053997
-36.355904 23.029121 16.388937
-16.367834 -34.348503 37.017139
-21.68857 32.169579 33.708611
-6.0026917 -98.800003 34.844826
-31.753675 41.200001 -11.454108
-5.4170566 9.6276093 -39.053997
14.210682 41.200001 20.294567
22.12933 -31.174385 -32.259335
-33.673725 23.583141 -21.137108
-20.826578 39.870628 34.262543
25.116077 -66.304794 -30.339994
-27.431541 66.152069 -7.3582788
17.117365 29.534327 -35.48011
1.8603946 41.200001 38.964462
32.551971 -66.373901 -22.27562
3.9128339 98.800003 -13.418991
-30.017754 52.901245 15.97521
-39.778267 23.695921 -1.4764538
9.869216 -8.9978809 38.88533
-7.6951642 -27.983835 39.564007
-25.919821 9.2217007 30.989534
14.59059 -48.181946 -36.420822
-12.996449 98.800003 18.750723
-10.867583 41.200001 1.4012048
-10.560718 -2.7769604 38.722488
22.446995 90.647942 -0.65360236
15.139227 29.102667 -36.259705
17.815577 -98.800003 -19.007401
7.1848307 -98.800003 3.2329617
29.060879 41.200001 9.7775545
-12.91225 34.112358 38.031929
-32.27211 56.751308 -3.8755739
-1.0942204 -2.5131149 -39.053997
-27.469896 63.477722 -10.957982
13.101794 41.200001 32.593906
-3.9250636 1.5324306 40.132
-27.493435 -98.321266 -28.270761
-16.870295 42.341782 35.004585
2.4481146 82.800003 3.9884632
6.6782193 -98.800003 18.280008
-16.522682 81.426003 -12.719277
13.953476 41.200001 24.742113
-25.449879 -75.574768 -30.213528
24.19326 41.200001 18.095552
-27.742765 -78.439804 -27.982969
21.876051 -80.543503 -32.422096
-34.674084 18.499998 -18.992725
-12.878548 -77.232117 38.041821
39.805542 -27.751371 1.4186974
30.373707 59.744255 -3.4877288
-18.751682 -98.800003 -10.363611
-31.995388 -10.685505 -23.074347
-22.876793 41.200001 17.236732
34.12529 -41.165138 -19.897387
-18.049026 -14.622272 36.047451
-5.6959419 -77.154854 40.131996
-12.559413 1.6884785 -37.057537
-25.305136 41.200001 -29.071075
-12.948831 41.200001 2.4403839
3.5593538 63.679554 28.356218
-3.5346673 42.135391 -39.686878
20.54546 -95.020279 34.355156
26.663099 -98.800003 4.0686693
34.336372 -73.946388 -19.435192
0.13982663 -98.800003 -16.876123
-15.362765 -40.982735 37.312294
-33.8517 -50.861153 -20.79328
22.480732 90.638229 0.41651818
-8.3991528 98.690262 21.861057
-6.1372509 41.200001 35.576252
32.756943 -64.920425 23.11709
-36.736271 -35.981079 15.556072
-38.699211 -35.470154 -8.9825277
-8.3541679 41.200001 -24.866306
30.288202 55.085457 12.111589
33.426323 -94.625954 -21.266644
-24.963182 56.409775 -21.393936
37.297283 -41.683807 14.029862
-11.013131 21.232784 38.58963
-20.188265 -1.2908897 34.672737
-38.793598 -65.760681 -8.3259611
13.542502 -27.49559 -36.728607
-36.153473 37.572353 16.832182
-24.482613 41.200001 27.518944
-39.187859 -59.918827 6.6614056
-20.455805 81.426003 -2.1101654
8.7173204 18.220036 -38.145596
7.3628306 64.550034 26.87063
-15.137254 -31.968832 -36.300518
9.406929 -98.800003 18.430319
14.638936 23.759699 37.484627
35.418476 -95.716644 18.143772
-4.129775 81.426003 14.723451
-36.684059 -62.762142 15.6704
-38.28648 26.388126 -11.083634
-1.1215055 82.760132 -20.354979
13.620574 41.200001 16.852915
14.50623 83.881622 17.722275
-19.72629 -98.800003 -11.117463
-39.332195 -10.709557 -4.5793762
34.456551 -97.666687 -19.172043
22.739828 -98.800003 23.626919
-39.017708 14.00477 7.8450184
-17.418894 67.652344 -21.725229
-19.377728 94.190781 13.558754
10.419972 -79.643799 38.723587
-17.534458 -98.800003 -20.09272
12.952435 98.800003 3.9115705
-22.662697 41.200001 -10.912226
-17.501978 81.426003 12.707921
-9.449461 41.200001 -0.16036031
-23.628281 92.640526 -1.3895093
16.025429 51.401909 30.372908
10.760346 41.199997 -20.989111
27.161022 -27.435009 29.574615
-37.918484 31.027037 -11.889332
39.075356 33.275063 6.4979844
38.502968 -88.917999 -9.4016161
28.297649 39.35881 -27.18498
-5.5128188 22.048248 40.132
-8.7015047 10.062963 -38.190475
1.5024258 41.200001 0.85799783
-34.236313 -76.002785 21.030087
-24.07572 -13.034122 32.174583
-18.008934 52.011559 28.922523
-39.196945 12.866053 6.598197
-28.516809 25.765066 28.167824
14.78896 81.426003 -17.193439
-18.354109 41.199997 -0.81758773
39.74292 26.163177 1.8542717
22.611139 -5.9176998 -31.949715
-39.387058 -34.520409 5.2757368
-35.51783 48.169037 7.772439
11.303173 -57.178188 38.464226
14.325846 82.800003 11.641327
12.609869 -31.990917 -37.002491
6.1594105 28.289448 39.97477
-18.960312 82.800003 -5.7076426
34.087624 41.200001 -7.9887018
-19.174383 98.800003 12.356772
3.0529804 98.800003 -9.4034147
-23.17907 -98.800003 21.897728
-2.9764032 41.200001 24.712439
-10.319818 86.947937 21.275251
4.4248133 -7.1201973 -39.053997
-8.4471664 97.180969 21.846817
39.367897 -75.254517 4.4630251
35.343842 -59.412888 -17.229195
22.760542 -30.796732 -31.853703
-29.917974 -12.667809 26.550705
-10.252534 -11.533058 38.812992
-12.471432 41.425377 36.932003
-21.18354 41.200005 -19.251812
39.024338 -53.179138 -5.7748756
-28.195614 22.946365 28.538527
-7.3903203 75.392937 -22.847458
-39.953575 30.17732 1.3349596
-5.7708659 -98.800011 -8.0057631
-26.850452 -37.895584 30.091009
-26.914093 45.187222 -27.048435
-19.073631 88.390976 -13.912312
13.493298 40.558033 -36.743057
10.336149 -69.635895 -37.6702
33.451912 -44.598259 22.315115
16.521933 81.426003 -13.143928
23.419538 41.200001 22.06241
-27.969315 -55.955963 -27.721476
-1.788537 -65.553139 -39.053997
-24.43737 74.25927 1.0791734
12.467515 -6.5049448 38.122299
15.787446 41.200005 15.783869
-38.583954 11.221951 -9.7842646
-34.312496 -91.743515 -19.784395
-21.778791 94.311531 9.0507259
14.699988 41.200001 -25.91678
18.167925 -96.361679 35.883007
-4.1325998 -98.800003 -8.8675032
12.223405 -30.668114 -37.115982
9.1425114 33.352795 39.098732
31.012106 -76.187073 -24.05258
26.559528 52.191208 21.120926
-32.409641 -96.362648 23.675013
-36.426544 -13.275606 -15.155834
-34.718021 -35.219589 19.975321
-6.7328243 92.358398 -22.355272
17.461599 22.093964 -35.2589
26.707972 -87.550919 -29.019419
1.5943937 5.5271492 -39.053997
-30.172079 -77.938751 26.257441
-16.473658 -84.164162 -35.908058
-14.603727 -56.67194 37.535194
-4.9977436 41.200001 -14.716158
18.922497 37.717873 -34.320103
-14.323992 -76.55674 -36.539345
-3.8844953 89.485092 -23.182999
1.2001826 41.200001 -19.284092
21.959167 93.683449 -4.0819211
-25.288561 41.200001 24.860168
14.867105 41.200001 18.046011
-18.412201 33.668621 35.814068
21.146086 13.618754 33.969185
27.185738 -39.512112 -28.468092
14.273353 82.800003 2.4205093
35.885841 42.885868 -15.425305
21.112137 -98.800011 30.539322
-16.900087 -13.661605 36.785782
36.888859 43.299129 -12.738474
-20.351011 83.625946 12.209444
38.770687 -91.913055 8.6173086
21.574018 41.200001 15.168133
7.9889336 41.200005 0.20017883
34.88459 -24.550362 19.312786
-38.956177 -51.2757 -7.1950207
-37.527065 42.982948 10.450759
-32.342216 41.200001 -22.123981
-38.666214 -58.466503 10.290061
-7.561079 -98.800003 21.284075
38.723976 -30.958912 8.9422245
14.359804 -98.800003 21.363258
-2.8633492 21.197727 -39.053997
32.685928 12.930798 -22.121037
-29.85807 -21.137424 -25.541361
-23.909292 41.200001 23.514246
0.60706365 91.463692 -23.182999
-11.580997 92.797409 -20.456194
17.655426 44.183529 -34.576069
13.112081 -97.035667 37.933014
-0.097551346 -15.455208 -39.053997
18.990372 50.53421 -30.047714
38.847248 -70.325607 8.0847521
18.031567 81.426003 10.638249
-10.624039 82.800003 -0.2476182
-2.0678065 98.800003 7.5151772
37.621799 -69.131027 -12.241298
-26.158951 26.794495 -29.757864
-26.666904 -81.415466 30.302845
39.256428 -14.040995 5.2384033
-32.627953 41.200001 3.2272635
-2.1437044 3.9645271 -39.053997
7.6891255 88.370148 21.690231
29.411356 -98.800003 10.212771
-25.795647 41.200001 -3.1874766
10.213405 81.42601 9.3183212
23.450424 73.045845 4.3072777
-35.196918 41.200001 16.452644
5.6639123 -98.800003 -25.624796
-13.802932 98.800003 12.369857
9.0161533 81.426003 -17.276077
7.8680606 -92.096848 -38.394993
20.071226 41.200005 -33.748856
0.97887844 41.200001 7.7455153
25.658276 -23.669769 -29.991568
6.2982202 -75.305504 39.934006
30.259245 -98.800003 13.422336
-4.6558747 -17.382618 40.132
31.485575 -98.800003 18.508926
-6.9649296 -27.065201 -38.700439
-2.6654794 98.800011 20.55439
19.083387 -69.021713 -34.216709
-3.9318056 -98.800003 -38.339466
-38.870708 -53.83445 -7.7895498
-39.32214 -15.574766 -4.649322
-37.442856 41.200001 10.790117
38.009937 14.528828 12.469412
16.961399 41.200005 -25.628832
-39.141064 18.058157 6.9869275
18.154034 -77.81871 -34.813931
37.80714 -97.57061 12.913464
16.586161 41.199997 9.8281059
-13.732146 -98.800003 -14.584728
39.610554 -74.464973 -1.6970506
-27.783234 -52.516644 -27.936258
-35.393631 39.213306 18.495975
-39.256454 -72.14727 -5.1062217
-14.448844 41.200001 -30.877901
0.62104821 -80.330734 40.132
21.31241 41.200001 -16.638271
14.373848 -98.800003 -0.65318185
32.836926 41.200001 -22.272289
-1.445624 41.200001 1.0139461
20.213108 43.153088 -33.52858
11.925475 82.800003 7.5851483
38.289337 -73.469521 -10.779621
-9.1741676 5.4894543 39.129673
-23.380255 94.629181 3.1325576
-23.66272 91.799469 -1.1474849
23.746742 -64.70636 32.297955
-23.778393 -68.043877 -31.287655
24.507656 -98.800003 30.982748
16.126053 -98.800003 -31.813953
29.593964 10.758818 -25.689072
-25.334375 41.200001 7.0492406
-30.615746 41.199997 8.7134676
5.0946722 41.200001 -15.147203
-19.434984 41.66143 33.733265
0.6546638 41.200005 -6.2041097
36.693672 14.758327 15.351557
31.793692 46.25491 19.304163
9.2352352 41.200005 6.1997705
-6.7893252 98.800003 -3.875145
16.284142 41.200001 -14.996546
-36.584877 -5.7121563 -14.809174
8.358223 11.53948 -38.251049
37.895317 14.550358 -11.642382
12.340298 40.430595 38.159657
-13.296378 -4.1658745 37.919121
37.737885 -11.572483 13.065097
-35.306408 41.200001 -7.6427741
-22.833614 41.200001 23.646179
-18.665468 -84.674393 -34.573311
-36.936546 19.7847 -14.039227
-8.0165157 -98.800003 11.885124
11.787462 41.200001 23.015614
-25.38051 41.200001 17.32007
-27.237385 59.758541 -15.572487
-36.281071 46.709282 7.1503215
-12.065914 68.59201 -24.645861
-39.782692 -35.918915 -1.4456574
-8.4720392 41.200001 25.116087
33.939003 41.200001 9.1621008
9.1315403 46.473427 -36.496883
4.4146104 81.426003 9.8021126
22.356525 -24.585703 33.191334
8.236805 82.800003 2.5546205
33.794617 -97.278236 21.69944
32.938549 41.200001 6.9893208
23.200176 -34.574497 32.649189
-36.286247 35.657974 16.54146
8.8968773 41.200001 3.2990365
-31.748861 38.568714 24.437634
-38.050156 21.887768 12.679134
38.733063 -77.608719 8.8790302
-12.735415 81.426003 5.5977569
37.800423 -44.104294 -11.850169
-33.658981 -98.800003 13.587233
33.592819 41.199997 -3.5312848
-23.519566 41.200001 0.099846452
24.827427 41.200001 -25.490311
5.7866278 -82.502815 40.084244
2.0265331 26.318127 40.132
5.9463439 -14.813924 -38.959335
38.683582 -5.1991577 -8.1451998
-13.334591 -83.509956 -36.829895
-5.8415427 82.800003 9.1374397
-10.238277 9.9838333 38.817181
29.269733 -50.341496 -26.063223
34.336723 -22.896879 20.512424
1.2667873 0.24092484 40.132
-36.090363 40.657871 -15.89187
13.778198 -95.076775 -36.659393
-24.905416 41.200001 27.712109
3.64292 50.448269 34.652843
-2.7940273 -98.800011 -23.77471
34.818878 -36.370567 19.456675
-38.780712 -79.537521 9.4935656
37.231991 41.200005 -12.626573
-39.388786 -72.40934 -4.1857285
15.622396 41.200001 11.496178
34.120312 12.349607 20.986279
39.025471 -92.45192 6.8449802
-2.7044191 41.200001 7.7039232
-34.272247 -98.800003 -2.5631974
-20.512192 -98.800003 28.744574
39.81823 -51.337566 1.3304513
-5.1685991 -50.690384 40.131996
-16.589296 -10.465992 -35.8741
-22.904305 -33.912766 32.927361
22.548456 -98.800003 -18.86224
-15.782804 41.200001 -11.690787
-25.197775 67.658913 10.245602
19.637354 41.200001 22.070545
-37.897568 -64.879974 -11.93512
-25.828558 49.830605 23.95079
-39.810589 25.809597 -1.2516168
-1.300467 37.253712 -39.053997
-13.662966 98.800003 14.638855
0.064957619 -54.902786 40.132
-19.207777 41.200005 -5.7539639
-31.487041 -8.7636738 -23.661104
-25.570787 -42.432213 31.213829
6.5906892 30.077574 39.848114
18.022865 68.214981 18.97118
-20.436279 -60.662697 34.513359
39.426434 7.8177605 4.0558186
35.918144 34.036629 -15.971672
38.695572 -88.487122 9.1398325
-6.875545 41.199997 -24.94591
-38.752579 -37.417282 9.6892996
-32.420074 -76.299194 -22.584141
-11.321339 17.363817 38.499123
-33.709763 41.200001 -12.980095
36.735909 -60.576363 -14.181072
-0.70520043 41.200001 -10.759014
38.452614 -24.894758 -9.7518902
9.3501587 15.042135 -37.959755
-17.832031 73.398346 -17.653316
-11.180016 95.700493 -20.716604
-22.441629 -61.570885 -32.146683
19.431313 -98.800003 -21.484762
33.759544 53.47691 -1.7380922
-39.085102 -21.063923 7.3762026
-25.034273 41.200001 5.1915832
37.562874 -22.11739 -12.370319
-39.992561 -57.175865 0.014252514
25.02986 -20.431526 -30.395401
13.772094 98.800003 -9.1681108
-9.1609688 9.1056728 39.133549
4.5612168 19.157558 40.132
26.5172 41.200005 -25.26103
-5.2075834 88.990623 -22.807642
34.097015 -2.8102207 -19.959299
-11.578602 -37.569187 -37.34557
14.011603 98.800003 2.721535
17.690409 79.770203 10.380256
19.788277 24.260612 34.841736
-7.3789639 81.426003 -0.35468593
0.18541777 98.800003 18.42238
20.781754 9.0213108 34.203308
-39.729885 -56.153015 2.8909748
22.743889 75.829842 -0.45413595
21.411259 -24.001768 -32.720779
-21.654732 85.656853 9.3251877
-9.0206928 81.426003 -14.931965
-21.654827 -68.691895 -32.652298
35.032375 -87.891663 -17.911198
-12.662847 41.199997 33.470875
-35.077652 -98.800003 -3.3145511
25.39113 56.122543 19.525202
39.440914 30.906364 -2.8770916
-31.886969 16.154083 24.27824
-39.978481 37.360176 1.1617143
-30.346291 31.875122 26.056376
-6.4982123 44.201351 -38.40379
-38.978745 -23.710228 8.1160259
4.6774983 -98.800003 -25.036854
24.39139 63.27935 15.293879
-39.85817 -37.97715 -0.92060429
-3.2399321 82.800003 -0.40914547
-35.707336 -37.428757 -16.730495
32.611961 41.200001 3.1955981
-2.924439 67.844345 -27.452881
-12.813592 67.35392 23.771786
28.994665 -47.511841 -26.380646
4.8411951 -47.664967 -39.054001
15.905981 -85.967728 37.112537
-32.120255 51.335823 13.099066
-8.5333099 81.187599 18.591354
-35.220284 -86.7519 18.875544
33.941387 -30.325935 21.378063
0.59102428 71.759209 24.511196
-38.61792 -55.978226 -9.5480042
33.344604 41.200001 -12.305838
18.7022 31.369312 35.539673
21.353529 -98.800003 -8.8373137
25.8354 -34.697124 30.955746
27.53413 -73.853203 29.144056
8.7657156 98.800003 -11.122617
6.3143816 -80.391502 39.92926
23.628101 -5.5421734 -31.296196
-5.2394385 41.199997 -18.813871
18.227674 -42.04158 35.844608
6.9940925 -41.728043 -38.651649
1.2725625 -13.004185 40.132
20.134886 16.857004 -33.541
0.97980571 82.800003 0.1470733
24.334806 -23.410027 -30.842052
18.524256 11.046475 -34.576019
11.248425 14.45514 -37.402298
39.276115 -0.4721489 5.1014414
23.941488 -34.874016 -31.094807
35.632904 -32.203514 17.674255
39.761749 1.5491085 -0.6453048
-32.030762 -57.378799 24.112286
-22.963488 41.200001 -4.7090626
10.070089 20.398903 38.82634
22.778297 -34.678944 -31.842297
14.721659 32.548805 37.460331
-5.8246355 17.954447 -39.035313
-23.703369 92.233917 -0.86181015
24.852383 41.200001 -1.236303
-32.728962 -63.314812 23.306477
0.03810668 -98.137611 40.132
-38.783047 -79.225555 -8.3993473
35.703018 10.75839 17.520727
11.579006 15.258326 -37.305222
-23.516323 93.256577 -2.176326
33.059765 -65.063606 -21.68964
22.742245 41.200001 9.4282694
-0.718261 28.764484 -39.053997
-3.6476328 98.800003 -14.240436
36.688412 -90.323341 -14.285078
25.747553 54.54203 20.297493
35.099579 -91.146065 18.842043
-28.964766 51.643791 -20.133657
39.658466 -88.21521 -1.3637698
11.918209 57.229778 -30.283331
13.807476 79.209961 -16.678194
-29.212219 -14.390066 27.365234
36.089863 -2.9191341 -15.595681
-26.131342 -98.800003 2.7219417
14.437704 -52.354488 -36.465717
-1.0501292 -20.851627 40.132
-5.6107235 41.200001 3.9782953
-35.796783 25.4499 -16.534657
5.4841671 -10.20454 -39.053997
-37.245628 22.939896 -13.362499
-8.419631 98.800003 -15.43444
2.8786893 -75.420357 40.132
11.210571 25.197269 38.491417
21.473072 41.199997 -5.4514976
8.1849632 -84.040619 39.379936
36.77422 -41.479237 -14.097185
21.713306 -40.865253 -32.52668
39.635674 -75.563057 -1.5223074
26.187252 41.318375 29.673168
-8.7972527 -98.800003 23.874334
36.343609 -15.027725 -15.040068
-16.9531 -12.072254 -35.673714
31.532112 -61.225258 24.530508
-39.992462 -51.637169 0.013526961
26.936968 -67.353264 29.833168
-27.443073 -28.798574 29.407047
-2.2511659 41.957558 38.693485
22.281837 95.893494 -1.8142854
-1.3209761 98.800003 -14.512136
-13.82702 98.800003 -8.254179
-2.4528863 60.778442 29.736824
9.5645609 -98.800003 -37.887955
-33.090614 -72.268654 -21.810169
11.654884 -98.800003 -1.7149074
-4.8423076 90.57164 -22.915979
-39.77742 -29.746515 2.5603306
-4.1207504 41.200001 39.264702
-30.831579 41.200001 -21.401064
2.7779057 44.019032 -38.79052
-39.581997 28.846832 3.9197237
-29.977108 4.6118698 26.482458
4.2307959 90.298996 22.715933
16.248701 -95.685829 -35.933891
38.458832 -95.375198 10.786605
-27.641436 -90.658363 29.178118
9.9952164 41.200001 -21.531952
-23.271048 -2.8829708 32.691681
33.919838 7.9718876 21.425249
-32.71299 -14.765308 23.324913
-12.764028 55.861538 29.767166
-30.233953 -35.986179 -25.107494
0.68118572 46.738075 36.418488
-20.344864 -98.800003 -18.762123
29.918951 -98.800003 -11.980896
16.690769 41.200005 2.9412045
-5.035346 41.200001 -10.49781
-23.391907 85.210526 3.0506706
-22.733389 89.597687 -6.9387846
32.879555 41.200005 11.73157
23.30978 -51.943905 32.578754
36.42926 -90.798836 -14.85252
-28.674322 9.6613274 -26.907709
26.194181 41.199997 -17.204916
-21.221704 74.486809 -12.4945
-24.793516 33.740662 -30.635317
-29.599859 41.200001 8.0255365
4.5944695 71.31015 24.293026
10.461671 -98.800003 -24.191236
18.130354 89.416878 13.513718
38.677692 -91.921211 9.2641697
31.159054 -49.63237 -23.883005
-2.3849797 -66.781296 40.132
39.074123 -65.712044 6.5065589
22.085136 -94.495506 -32.287731
32.934185 -98.800003 -2.6327667
16.454197 94.503632 -15.467006
-11.146495 98.800003 5.93501
-0.53245521 -41.174068 40.132
-32.130127 -35.289417 23.997608
39.372128 -13.220203 -3.3555903
-24.098711 -6.7006578 -31.08181
-39.405983 -38.3974 5.1440902
-23.308388 41.200001 4.8133006
-38.485573 10.22933 -10.468647
-28.187626 10.683212 -27.469482
-27.7943 -98.800003 -9.6683111
8.7312832 -7.9199696 -38.141495
12.069468 41.199997 -2.295752
-3.1450305 -65.782135 -39.053997
11.030706 41.200001 32.579842
9.7610788 -97.775543 -37.839081
24.880342 41.200001 17.115017
18.205996 41.200001 -28.361582
-20.107563 -55.225597 34.724594
-32.352207 0.055431366 23.741299
39.097271 -61.00985 6.3455186
-37.614201 -86.171509 -12.55554
8.6852503 97.22184 21.394793
-9.0115128 51.095505 33.206711
-16.716799 49.346832 31.227158
-17.538532 41.200001 -15.346749
14.831937 41.199997 -9.0535498
19.420925 -86.471771 -33.999805
-3.7024405 50.05365 -35.918854
13.52665 41.200001 -3.139034
26.664557 -23.499796 30.14752
9.9096336 94.35807 -20.706463
-35.235519 50.272335 -4.0627155
32.831028 -39.145832 23.031593
8.8355446 41.200001 3.4371355
-38.93623 -42.346355 -7.3337884
15.243388 41.200001 12.22221
15.025439 41.200001 23.314089
-10.874137 -21.464872 38.630447
-31.376225 -19.715216 -23.789019
-4.8542557 66.341553 26.952187
-4.4139285 -7.8108416 40.132
13.537208 -86.047173 -36.730164
-15.658722 41.200001 -6.162746
16.2507 59.027714 25.820393
15.082671 -28.935791 37.354317
-1.4361937 41.200001 29.863405
1.7251272 -23.09959 -39.053997
35.937145 41.200001 15.351332
10.22275 81.426003 -8.7126799
8.7283154 -78.357689 -38.142368
25.860262 41.200001 18.907215
-23.46814 41.200001 -29.993555
2.5309968 81.426003 20.840767
39.110409 1.4200592 -5.1761322
-39.55455 -5.0817089 -3.0326476
-30.183615 41.200001 23.745077
-21.541544 -32.302673 33.803093
2.8636231 53.406914 33.244854
39.644791 -0.83725929 2.5368927
-9.7767544 82.800003 7.2575154
0.46637845 -12.535589 -39.054001
0.57068872 -29.630909 40.132
-21.82165 33.919025 -32.545094
-9.1995239 -42.725334 -38.04422
25.686283 -22.278658 31.051569
30.197325 -81.845261 26.070812
10.498049 21.087183 -37.622658
-24.954918 -95.64447 -30.531597
-33.872871 -37.581364 -20.746918
20.934189 77.928406 -5.8957081
0.70332479 -58.606472 -39.053997
-39.767159 33.616318 2.6317122
-11.167873 -23.052862 38.544189
-39.525902 7.8699894 4.309907
-9.3195248 41.199997 14.34372
-28.501156 -88.313469 -27.107594
-14.880878 41.200001 1.3904831
8.8440361 -56.239563 39.186386
-39.700489 33.610844 3.0954316
-24.705648 14.687712 -30.691784
26.849421 -98.679184 29.934196
38.32193 -5.0895119 11.738914
-8.6686602 98.800003 21.636831
-24.730495 -98.800003 9.118865
10.668121 -25.252163 38.650715
32.587639 41.200001 1.6503232
-8.6587067 1.5182495 -38.203041
-14.953877 41.200001 -2.7966869
-39.342304 -66.301277 -4.5090418
34.229954 38.164719 -19.668207
16.533867 81.426003 5.7214756
25.679949 -98.800003 23.695635
-0.57319385 -98.800003 34.120312
4.198791 -96.771667 -39.053997
-1.6435916 41.200001 24.688961
38.370476 -4.896431 11.401249
-34.505978 -98.800003 -4.271153
7.7085485 -98.800003 31.34391
2.3320022 -67.341843 40.132
21.107121 -98.800003 1.6207201
-19.770098 41.200001 5.0910597
31.691278 -18.393623 -23.268833
24.873413 67.231186 -10.622755
-18.254156 13.211794 -34.837627
-15.732694 -33.534473 -36.125656
5.6716042 -79.995491 40.118019
-7.6260667 -90.108963 39.584297
-12.046294 -98.800003 -0.4145889
35.833908 -73.943199 17.234123
25.609505 41.200001 -20.8403
35.504353 41.200001 1.4810458
-7.039413 41.200001 -1.0167421
-38.997925 28.876789 -6.9046092
5.774199 59.018509 30.111952
-33.577393 52.84024 -7.3546014
39.442101 -8.6971054 3.9468524
-20.265383 -98.800003 -25.336069
36.506611 20.170731 15.761146
22.509758 92.359146 -0.21252461
-0.53594875 12.912207 -39.053997
-8.4427261 98.800003 11.687472
-17.470221 41.200001 7.7431517
1.9115427 41.200001 -31.844147
-22.545914 66.701241 15.853621
-9.3217583 -98.800003 11.282215
35.835983 -34.314137 -16.151577
-22.11338 25.180462 -32.35762
-5.8274093 -25.556808 40.112499
11.537573 82.800003 14.317183
-16.15111 62.29459 -25.504322
-34.608234 -36.288364 -19.13689
3.2960324 82.800003 2.3509262
10.008632 -69.998055 -37.766384
-16.054211 -80.757172 37.109241
-25.565592 -98.800003 -28.702213
-1.0560893 -98.800003 -15.071524
8.7792749 41.200001 27.721874
-8.6358223 83.273354 -21.790863
-39.175209 -90.533745 6.7494268
-27.67289 14.304264 -28.063622
3.1683545 -97.751595 40.132
39.776386 31.31876 1.6214781
4.585031 81.426003 6.7979908
-39.697315 -75.691925 3.1175308
-7.3623648 18.537247 -38.583733
-4.2290611 -58.956867 -39.053997
15.907703 0.90109396 37.112034
38.662701 -85.693626 -8.2904921
19.142151 48.939823 -30.871784
-3.5472355 -37.829987 -39.053997
18.595804 41.199997 4.0726457
-24.217813 -98.800003 6.0945206
18.747421 -98.800003 15.441286
25.284512 23.344925 -30.231756
-10.136696 28.403416 -37.769009
-19.641897 -52.423096 -33.945843
-23.636156 18.431351 32.457054
35.49102 -32.042419 -16.906927
-2.2510123 81.426003 5.4996543
20.287216 -26.645977 34.521111
-23.439041 93.054314 2.7194355
13.267466 -76.592636 -36.809376
-36.757965 -63.435711 15.50857
-8.0959864 82.800003 -17.015179
-15.340839 41.200005 -1.117568
28.183853 0.38075066 28.394299
39.848221 18.169168 1.1217916
-0.10878611 38.372734 40.132
27.822571 61.022171 -11.54064
4.7612162 -20.146938 -39.053997
-38.676884 -82.488174 10.21584
5.3585739 41.200001 6.8653922
23.549788 29.763767 32.424519
-19.382059 66.246315 -20.903013
-20.299545 62.672844 21.283121
-26.955835 41.200001 24.906387
-37.852516 -70.215179 13.111889
38.781406 10.802608 8.542717
-24.870985 41.200001 6.7421656
11.337551 41.200001 32.155483
-20.725449 -68.777847 34.327534
-26.768799 -77.9543 -29.107174
16.423521 49.528275 31.200148
12.509398 -8.1065979 38.109997
12.655543 25.003429 -36.989079
30.083443 41.200001 25.874552
-28.317364 -53.940529 28.39801
-2.555016 41.200001 -31.71661
-18.036711 -4.4883623 36.055367
-30.881119 32.21447 -24.360498
22.831068 41.200001 -10.046288
-4.4068909 -41.834358 40.132
-25.973042 41.200001 9.5867834
37.801895 -63.263691 -11.846942
27.453209 -15.145456 29.23744
-2.4595523 10.51331 -39.053997
-3.2853432 41.200001 0.29021299
-38.795479 -91.20031 9.3908501
35.065426 -9.0371895 18.916828
6.8709936 -34.871788 -38.687798
17.194962 -71.723045 36.508251
20.254663 41.200001 17.456379
34.912075 -64.181969 19.252605
-23.570974 41.200005 25.095268
-39.516827 -48.0914 -3.2950759
13.78632 41.200001 31.552952
-2.8242524 82.800003 -15.766685
-4.0375247 81.426003 4.2587757
-32.699474 47.361053 -17.29364
24.895878 24.449736 -30.481501
33.209991 -71.263527 22.594282
-39.180603 25.644588 6.7118516
17.622078 -98.800003 -20.464407
-1.492259 -98.800003 23.419601
38.685658 -81.644989 9.208786
16.9991 -78.259178 36.634117
7.1673965 -31.198273 39.678753
-4.0356269 -38.538826 40.132
-39.321148 -55.343464 5.7342157
-36.828285 46.964287 2.5220137
31.149284 56.647881 -8.867795
-37.846401 44.651852 -3.9457021
-13.98819 41.200005 34.618431
37.457619 41.200001 -4.6077223
18.030735 70.720955 -18.162518
-11.114772 86.348267 20.759127
-20.263821 59.033531 -24.666386
36.563248 34.824764 -14.559134
15.499091 57.557083 27.153278
4.7475724 97.825874 22.562662
33.202507 41.200001 19.026339
-27.118238 -98.800003 -17.57041
8.8903484 78.329445 19.393644
17.100853 41.200001 32.613586
-7.7053475 -89.751274 -38.483009
3.0333085 2.4185266 40.132
-22.082243 42.008308 31.840513
23.768805 28.405682 32.283775
30.687847 -26.632668 -24.426765
0.77375555 2.7957172 -39.053993
20.074333 41.200001 11.364275
-26.531723 -14.443569 -29.380825
-39.959885 5.7022343 -0.21305886
-25.816673 -10.22296 -29.977818
36.698669 -31.501829 -14.262617
-30.653255 41.200005 18.842297
-13.70155 71.352951 -22.06638
-18.984566 67.068863 19.703285
9.8739281 -20.525501 38.883942
-15.869955 41.200001 28.358795
35.322853 -87.145546 -17.275152
-33.802155 -23.658407 21.980732
-39.725365 14.52297 -1.8444345
39.917965 22.573803 0.63666362
-0.10551918 63.410034 -29.563015
15.310011 -98.800003 17.950899
-2.70876 98.800003 7.0464597
36.737919 28.79047 -14.176673
-11.024796 -98.800003 -23.598152
-20.152805 41.200001 -7.2739882
-28.703966 0.91040039 -26.873497
19.468525 81.426003 11.14161
0.33598781 88.071121 -23.182999
-13.656 98.800003 -11.877687
18.726353 41.200001 -15.388836
3.7876065 -98.800003 26.486988
-15.853247 -98.800003 -18.573385
-18.887465 31.961199 35.508656
39.135468 11.317883 6.0798244
39.446495 -78.353325 3.9162467
-11.134194 41.200005 5.9795389
-34.866589 -58.802601 -18.571249
38.407108 -79.666344 11.146409
5.5188913 -76.108253 40.131996
20.671528 81.426003 -2.9932234
26.50983 37.162827 30.326071
16.676439 -6.7305942 36.841461
0.62076867 80.644943 20.28257
18.390287 -47.360329 35.740112
6.4936948 81.426003 19.726585
18.215275 -27.163437 35.852581
7.5402203 47.810471 -36.29351
-13.064663 85.911942 -19.492653
-29.886526 -85.373268 26.587
29.150845 -85.211792 27.278419
39.147839 -53.574631 5.9937563
-10.868649 41.200005 4.5922103
-38.803577 -83.58252 9.3345118
-30.852945 -49.385452 -24.393019
-23.366709 92.368118 3.2277615
38.243217 -77.254929 -10.880604
-4.6036663 -97.891846 40.132
-33.427391 -98.800003 7.9078941
-21.529722 -24.011351 33.810692
-21.885998 81.426003 -5.4706864
-13.659522 -72.861092 -36.734474
20.811008 4.779438 34.184509
-31.975653 41.200001 -2.450583
24.356472 -89.193573 31.90613
-32.860935 -98.800003 -20.866528
20.391258 -45.371914 -33.376251
38.513031 21.800489 10.409594
38.891445 25.256878 7.7772841
-33.057171 -36.638023 -21.848768
-39.841599 -22.706663 2.113914
-8.0590115 -78.854187 -38.37915
30.019379 -26.898254 26.276154
9.3475094 -98.800003 9.5422935
14.977539 -63.40416 -36.307186
34.099827 41.200001 6.0139713
-15.062587 81.840851 -18.195135
-6.0508933 81.426003 8.1454296
21.214487 41.199997 8.0597067
-39.602642 -77.974968 -2.6981175
10.193212 -96.338394 -37.712177
8.431673 -98.800003 -26.085648
13.531219 41.200005 7.1604753
-7.3725514 41.200001 16.705332
-19.481825 7.4236398 35.126709
30.832047 -9.2236023 -24.260363
12.279265 41.200001 -20.246265
-12.714684 73.819328 20.257786
12.134043 38.545876 -37.14222
27.98402 9.4487572 28.624895
4.8764853 -79.526688 -39.053997
17.08499 -44.607876 -35.500919
9.5636425 41.200001 31.895502
34.577656 8.1764297 19.984869
9.2426929 5.29426 39.069313
22.135471 -69.00325 -32.255386
38.261238 -26.817112 11.919149
-38.111919 41.200001 -7.1490221
-26.792664 62.083542 12.905423
33.156292 43.521423 19.567299
-20.94224 37.28289 -33.110218
34.134521 -53.915813 -19.877176
0.54808259 6.8057671 40.132
37.09034 -98.800011 13.075774
26.955566 51.658932 -22.140045
0.85944927 -98.800003 -35.079346
32.68478 -55.975307 23.200363
27.36692 9.3447361 29.337013
5.3343363 89.101135 -22.388634
-38.394375 20.30407 -10.847403
-35.855614 -11.446825 17.484392
-36.909454 -68.054932 -14.098536
33.235512 -39.503418 -21.486834
10.595541 79.893341 -18.472002
-16.385618 85.321518 -17.046356
39.593533 -60.780201 -1.8154616
-12.774209 47.198814 -35.090153
9.9127131 -40.051178 38.872551
-32.236122 -36.551758 -22.796474
-37.106384 -77.109581 -13.667364
-10.445625 -15.614813 -37.678284
-38.867989 -66.401192 8.8864918
-34.262199 -98.800003 12.264385
-8.9163284 86.443115 -21.70767
27.39208 51.969818 -21.403473
36.743095 -78.549133 -14.165335
-40.011688 0.64955711 0.93073273
38.667622 -53.604889 9.3342543
-37.219814 -0.9632988 14.497288
-33.622391 41.200001 -16.65873
-1.9196006 62.175472 -30.150501
5.7230811 82.800003 -16.006876
-33.34774 22.741234 22.592327
-14.831928 -9.9580545 -36.390179
-39.06163 -56.429405 -6.4614816
3.7945354 22.494091 40.132
25.866396 57.484062 -19.034647
-28.246267 64.527679 -6.9095354
5.574626 -98.800003 35.438099
31.683525 43.39497 21.7948
-31.23336 -98.800003 -9.4684248
-13.520402 -78.612976 37.853333
36.189186 -98.639076 16.45619
22.074656 -20.178654 33.372467
39.545017 23.477238 -2.15294
10.200199 -5.0945797 -37.710125
-3.7748692 41.200005 14.394697
-37.999249 32.211426 12.790594
-23.175245 81.95282 4.5733137
-28.89378 41.200001 11.884336
6.1094866 75.222038 21.885639
19.907495 62.809402 -21.922153
16.045879 8.7420855 37.071457
19.53088 41.200001 22.028601
-32.790451 -77.116386 -22.156633
-2.6048141 41.199997 -0.90396285
-12.636272 5.9991894 38.112968
-25.298212 41.199997 18.826086
-11.192452 -98.800003 -26.566538
0.58778262 76.720779 22.150038
12.846895 14.624474 -36.932884
-6.254519 -2.8268261 39.987068
2.3342276 -57.072876 -39.053997
3.4837182 -98.800003 32.463959
6.9537878 41.200001 2.9799433
14.711657 -98.800003 4.1270905
38.352272 -74.960526 -10.449858
-17.617247 -11.27228 36.324921
-3.033988 74.49884 23.207438
-0.21210358 41.200001 28.77676
25.312527 -3.8862352 31.29175
-0.48832363 -98.800003 24.984783
-29.764282 48.385796 20.426579
-4.1995125 6.8326826 -39.053997
-38.830376 33.614986 -8.0701084
25.6215 -85.094803 -30.015202
10.658419 41.200001 -4.6804104
-7.8979864 -98.800003 30.352259
29.321716 -19.875748 27.081242
-18.027147 65.769699 -22.376143
4.3469496 -52.225365 -39.053997
22.460377 97.430962 0.55955744
-28.017508 -65.38652 28.74408
4.988431 -33.433895 40.132
10.403636 -11.562429 -37.650387
-29.951149 -98.800003 -1.3931322
-5.155611 91.002525 -22.823055
-18.202072 32.211922 35.9491
-7.6772699 89.1996 22.075161
38.635483 -51.488976 9.5578051
22.085756 92.600754 3.1922815
1.0818229 -39.076813 40.132
-4.9863939 -49.950466 40.132
19.764053 -3.7085867 -33.779305
13.801407 47.273144 33.646351
-32.034538 -98.800003 -12.984158
18.094387 -69.693771 -34.852261
0.24161839 -83.160019 40.132004
-28.773813 -11.879566 27.871208
-30.619251 59.874649 -5.3464351
38.604874 -28.576849 9.7707195
-17.564476 28.240086 -35.280827
-34.110943 -9.7612362 -20.225683
-10.933349 -98.800003 -30.174236
-9.942009 -41.768257 38.904182
-27.188072 -8.4019451 -28.623226
-0.67433065 48.489937 -36.662971
8.1979151 82.800003 -5.3667159
15.189631 26.272949 37.322906
6.3509979 71.007782 23.928579
-11.284056 89.476967 -20.649036
-4.06001 25.686382 40.132
1.6298661 10.55416 40.132
-39.351532 -5.2890396 5.5228715
-36.876865 41.452148 -14.667772
24.624516 57.731895 -20.281652
12.455937 -89.152519 38.125698
-33.621479 41.200001 -19.997583
5.6451864 41.200001 28.955481
-17.429058 55.263336 27.495806
18.425774 41.200001 -0.39893079
-15.436334 -76.674339 -36.212688
10.005331 -54.427528 38.845356
17.546618 30.784863 -35.204266
8.3984098 -88.86335 39.317253
-1.1179047 -19.487164 -39.053997
-39.383556 -95.442497 5.3001175
23.673981 19.022308 -31.266712
-17.111336 -92.166618 -35.572025
39.311977 -70.678558 -3.7740126
-8.6115332 -16.886871 39.294899
-5.1004887 3.6615176 40.132
19.443451 -57.948219 35.063328
1.0734056 41.200005 -33.727474
15.07403 -98.800003 -17.539408
-9.1177998 91.490059 21.647915
38.74147 -7.8905602 -7.7425275
12.479164 -19.464262 38.118877
11.373621 81.42601 15.94157
-23.013172 98.228493 -5.7123079
38.981503 -1.1875515 7.1508446
8.388216 16.210808 39.320244
12.581948 82.800003 9.2334185
-35.691414 25.586943 -16.765352
14.57495 45.693298 -35.289795
-19.962332 57.212753 24.789562
21.937065 -98.800003 -30.269432
23.377254 -5.413517 -31.457394
2.1742187 22.346985 40.132
10.796963 75.899727 -20.651081
29.241314 -64.40506 27.174019
0.88672715 -98.800003 16.523762
-16.781038 -96.520439 -35.784286
1.8444191 41.200001 24.909349
34.386105 -42.485146 20.404297
-6.4059072 -50.791313 39.942616
13.481372 41.200001 -34.63694
-14.078211 57.801994 -29.32268
-4.1274085 82.800003 -17.141802
19.229092 -60.662064 35.20108
-28.753712 -41.005226 -26.816074
11.313634 -55.443466 38.461151
21.979015 41.200001 -21.4352
-16.346855 41.200001 -29.881851
33.00161 -45.568443 22.834753
31.855675 36.158455 -23.079123
-18.110458 -91.719643 36.007973
-37.488701 45.925938 -2.3424635
-36.769852 10.876041 15.482538
36.108738 -28.593328 16.632347
3.2426538 -14.217913 -39.053997
-34.931534 -26.018864 19.507793
9.2706213 41.200001 10.379439
39.896694 -85.672531 0.29338801
-3.1599848 41.200005 -32.768921
-17.128803 43.469357 -35.292587
-20.005753 -40.831093 34.790024
39.856945 -40.466888 0.016880125
31.353661 -98.800003 -3.9553976
-10.506451 21.486866 38.738426
24.08223 -27.467928 32.082363
-3.9851801 41.200001 11.851542
-5.4819298 4.9926634 -39.053997
-20.119152 28.333147 -33.639149
-0.21168992 41.200001 5.8704095
6.8871317 -45.445053 -38.68306
-21.982491 20.05945 -32.441734
-38.118893 -0.81142616 12.528622
-23.412239 -3.7073278 -31.522949
-6.7629786 41.200005 4.2364998
24.329433 -17.720797 31.923506
-12.776255 81.426003 -11.191075
15.577088 -17.236963 37.209126
-11.83594 -78.319031 -37.269997
20.154346 -98.800003 11.133174
-35.685658 -68.825439 17.856543
14.582175 50.422897 -32.915352
-29.95137 -53.226963 26.512161
-37.422928 -85.104462 -12.974326
10.938519 98.800003 15.129138
29.967392 60.475277 2.7043877
0.23122025 -97.027939 -39.053997
3.3238647 41.200001 -37.533257
-39.177277 -35.578087 -5.6570249
-5.0014124 41.200005 -19.788677
24.455763 42.930641 -30.931599
23.589231 -92.314369 -31.321175
-8.1111507 -98.800003 -2.8361566
1.9365435 -23.626678 -39.053997
4.402154 -98.800003 25.618555
-16.24234 41.200005 8.8707838
-8.7975245 -42.82692 -38.16227
1.5177658 -37.87402 -39.053997
-33.138184 41.200005 -14.296931
-38.491932 41.200005 -1.6246303
-39.462162 20.490349 4.7532935
-37.935677 40.145042 -11.851698
-7.3260169 24.152218 -38.594406
-22.47241 59.174576 21.240311
-7.8674426 88.204056 -22.018757
6.2631664 82.800003 6.4978805
-17.73731 81.426003 -3.8247271
-38.804619 -90.42588 -8.249279
-19.9293 82.698189 -6.2573071
9.2372961 -96.313301 -37.992897
29.423935 41.200001 3.2980986
28.62879 38.336517 27.880852
-29.310608 63.896896 0.45128658
-0.87713414 41.200005 -7.1344066
-29.215055 38.63155 27.361961
-28.67103 -82.508011 27.989834
-32.768196 46.362343 -18.245327
-21.980722 -15.30444 33.52087
18.616812 81.786926 5.9512496
21.659761 62.974659 18.700033
27.112251 -21.598818 29.630894
-5.4267797 3.1012368 -39.053997
15.398608 98.800003 -10.526872
28.199898 -64.627571 28.375782
31.651733 4.6374722 24.392466
-21.235218 -98.800003 -21.12718
34.795074 -17.802237 19.508801
-17.396877 41.200001 -32.702991
3.1228225 81.426003 16.568504
12.727607 -98.800003 14.774683
15.817635 0.52536678 -36.060482
-13.910173 -98.800003 -9.4007511
-26.881241 66.474792 -8.9393177
-6.5531034 78.457626 -21.590742
32.693832 54.874519 3.2190294
-13.936172 82.800003 3.6840758
20.275536 9.5543442 34.528614
39.718796 15.987839 2.0221362
-23.807072 83.221565 0.13302159
23.394699 -60.276997 32.524185
1.0104547 33.357735 40.132
31.801172 56.944077 -3.2988343
-3.6533282 81.426003 -8.0989962
-16.178228 41.200001 33.864155
7.2621307 -18.743984 -38.572929
20.644825 71.934692 -14.239417
-12.940833 41.200001 -9.6030722
0.76056552 -31.75704 -39.053997
-0.020539522 -17.059095 40.132
-31.492157 33.189255 -23.655201
-37.197346 -53.655235 -13.468217
-0.28062654 40.913788 -39.053997
-35.808319 -27.310656 -16.509398
28.558723 -51.090462 27.96171
17.961525 67.723877 19.409565
38.811348 -21.430799 -7.2564392
39.691727 2.05023 2.2104027
1.2150276 -81.44899 -39.053997
-39.938515 -94.670151 1.4397426
26.373043 -20.444059 30.483921
17.415438 41.200001 -29.318161
-26.704292 16.175596 30.259691
-33.372288 -6.5964966 22.563999
23.432369 -61.227757 32.499977
36.038361 -81.657692 16.786455
-39.516975 -95.786186 -3.2940166
-25.964466 68.102478 -9.1503916
36.334778 -49.940941 -15.059402
5.7848783 -98.800003 -36.600933
26.48955 -98.800003 11.408738
17.259424 -98.800003 -18.558744
-34.419472 -93.195534 -19.55018
