# .PCD v0.7 - Point Cloud Data file format
VERSION 0.7
FIELDS x y z rgb normal_x normal_y normal_z curvature
SIZE 4 4 4 4 4 4 4 4
TYPE F F F U F F F F
COUNT 1 1 1 1 1 1 1 1
WIDTH 138
HEIGHT 1
VIEWPOINT 0 0 0 1 0 0 0
POINTS 138
DATA ascii
-6.8000001e-05 -0.098800004 0.00053899997 4278190080 0 0 0 0
0.039932001 -0.098800004 0.00053899997 4278190080 0 0 0 0
0.038311999 -0.098800004 0.011808 4278190080 0 0 0 0
0.038311999 -0.098800004 -0.01073 4278190080 0 0 0 0
0.033581998 -0.098800004 -0.021087 4278190080 0 0 0 0
0.026125999 -0.098800004 -0.029691 4278190080 0 0 0 0
0.016548 -0.098800004 -0.035845999 4278190080 0 0 0 0
0.005624 -0.098800004 -0.039053999 4278190080 0 0 0 0
-0.0057609999 -0.098800004 -0.039053999 4278190080 0 0 0 0
-0.016685 -0.098800004 -0.035845999 4278190080 0 0 0 0
-0.026263 -0.098800004 -0.029691 4278190080 0 0 0 0
-0.033718001 -0.098800004 -0.021086 4278190080 0 0 0 0
-0.038447998 -0.098800004 -0.01073 4278190080 0 0 0 0
-0.040068001 -0.098800004 0.00053899997 4278190080 0 0 0 0
-0.038447998 -0.098800004 0.011808 4278190080 0 0 0 0
-0.033718001 -0.098800004 0.022165 4278190080 0 0 0 0
-0.026263 -0.098800004 0.030769 4278190080 0 0 0 0
-0.016685 -0.098800004 0.036924001 4278190080 0 0 0 0
-0.0057609999 -0.098800004 0.040132001 4278190080 0 0 0 0
0.005624 -0.098800004 0.040132001 4278190080 0 0 0 0
0.016548 -0.098800004 0.036924001 4278190080 0 0 0 0
0.026125999 -0.098800004 0.030769 4278190080 0 0 0 0
0.033581998 -0.098800004 0.022165 4278190080 0 0 0 0
-6.8000001e-05 0.041200001 0.00053899997 4278190080 0 0 0 0
0.038311999 0.041200001 0.011808 4278190080 0 0 0 0
0.039932001 0.041200001 0.00053899997 4278190080 0 0 0 0
0.038311999 0.041200001 -0.01073 4278190080 0 0 0 0
0.033581998 0.041200001 -0.021087 4278190080 0 0 0 0
0.026125999 0.041200001 -0.029691 4278190080 0 0 0 0
0.016548 0.041200001 -0.035845999 4278190080 0 0 0 0
0.005624 0.041200001 -0.039053999 4278190080 0 0 0 0
-0.0057609999 0.041200001 -0.039053999 4278190080 0 0 0 0
-0.016685 0.041200001 -0.035845999 4278190080 0 0 0 0
-0.026263 0.041200001 -0.029691 4278190080 0 0 0 0
-0.033718001 0.041200001 -0.021086 4278190080 0 0 0 0
-0.038447998 0.041200001 -0.01073 4278190080 0 0 0 0
-0.040068001 0.041200001 0.00053899997 4278190080 0 0 0 0
-0.038447998 0.041200001 0.011808 4278190080 0 0 0 0
-0.033718001 0.041200001 0.022165 4278190080 0 0 0 0
-0.026263 0.041200001 0.030769 4278190080 0 0 0 0
-0.016685 0.041200001 0.036924001 4278190080 0 0 0 0
-0.0057609999 0.041200001 0.040132001 4278190080 0 0 0 0
0.005624 0.041200001 0.040132001 4278190080 0 0 0 0
0.016548 0.041200001 0.036924001 4278190080 0 0 0 0
0.026125999 0.041200001 0.030769 4278190080 0 0 0 0
0.033581998 0.041200001 0.022165 4278190080 0 0 0 0
0.033721998 0.041200001 0.021086 4278190080 0 0 0 0
0.018457999 0.082800001 0.0050949999 4278190080 0 0 0 0
0.016096 0.082800001 0.010274 4278190080 0 0 0 0
0.038451999 0.041200001 0.01073 4278190080 0 0 0 0
0.026265999 0.041200001 0.029691 4278190080 0 0 0 0
0.012365 0.082800001 0.014576 4278190080 0 0 0 0
0.016685 0.041200001 0.035845999 4278190080 0 0 0 0
0.007578 0.082800001 0.017653 4278190080 0 0 0 0
0.0057600001 0.041200001 0.039053999 4278190080 0 0 0 0
0.0021190001 0.082800001 0.019257 4278190080 0 0 0 0
-0.003577 0.082800001 0.019257 4278190080 0 0 0 0
-0.0056250002 0.041200001 0.039053999 4278190080 0 0 0 0
-0.0090359999 0.082800001 0.017653 4278190080 0 0 0 0
-0.016543999 0.041200001 0.035845999 4278190080 0 0 0 0
-0.013823 0.082800001 0.014576 4278190080 0 0 0 0
-0.026124001 0.041200001 0.029691 4278190080 0 0 0 0
-0.033580001 0.041200001 0.021086 4278190080 0 0 0 0
-0.017555 0.082800001 0.010274 4278190080 0 0 0 0
-0.038309999 0.041200001 0.01073 4278190080 0 0 0 0
-0.019916 0.082800001 0.0050949999 4278190080 0 0 0 0
-0.039928999 0.041200001 -0.00053899997 4278190080 0 0 0 0
-0.020729 0.082800001 -0.00053899997 4278190080 0 0 0 0
-0.038309999 0.041200001 -0.011808 4278190080 0 0 0 0
-0.019916 0.082800001 -0.006174 4278190080 0 0 0 0
-0.033580001 0.041200001 -0.022165 4278190080 0 0 0 0
-0.017555 0.082800001 -0.011352 4278190080 0 0 0 0
-0.026124001 0.041200001 -0.030769 4278190080 0 0 0 0
-0.013823 0.082800001 -0.015654 4278190080 0 0 0 0
-0.016543999 0.041200001 -0.036924001 4278190080 0 0 0 0
-0.0090359999 0.082800001 -0.018732 4278190080 0 0 0 0
-0.0056250002 0.041200001 -0.040132001 4278190080 0 0 0 0
-0.003577 0.082800001 -0.020336 4278190080 0 0 0 0
0.0057600001 0.041200001 -0.040132001 4278190080 0 0 0 0
0.0021190001 0.082800001 -0.020336 4278190080 0 0 0 0
0.007578 0.082800001 -0.018732 4278190080 0 0 0 0
0.016685 0.041200001 -0.036924001 4278190080 0 0 0 0
0.012365 0.082800001 -0.015654 4278190080 0 0 0 0
0.026265999 0.041200001 -0.030769 4278190080 0 0 0 0
0.033721998 0.041200001 -0.022165 4278190080 0 0 0 0
0.016096 0.082800001 -0.011352 4278190080 0 0 0 0
0.038451999 0.041200001 -0.011809 4278190080 0 0 0 0
0.018457999 0.082800001 -0.006174 4278190080 0 0 0 0
0.040070999 0.041200001 -0.00053899997 4278190080 0 0 0 0
0.019270999 0.082800001 -0.00053899997 4278190080 0 0 0 0
-0.00072900002 0.082800001 -0.00053899997 4278190080 0 0 0 0
7.1000002e-05 0.041200001 -0.00053899997 4278190080 0 0 0 0
0.018859999 0.081426002 0.012663 4278190080 0 0 0 0
0.021601001 0.098800004 0.0065990002 4278190080 0 0 0 0
0.018859999 0.098800004 0.012663 4278190080 0 0 0 0
0.021601001 0.081426002 0.0065990002 4278190080 0 0 0 0
0.014539 0.081426002 0.017701 4278190080 0 0 0 0
0.014539 0.098800004 0.017701 4278190080 0 0 0 0
0.0089880005 0.098800004 0.021305 4278190080 0 0 0 0
0.0089880005 0.081426002 0.021305 4278190080 0 0 0 0
0.002656 0.098800004 0.023182999 4278190080 0 0 0 0
0.002656 0.081426002 0.023182999 4278190080 0 0 0 0
-0.0039420002 0.098800004 0.023182999 4278190080 0 0 0 0
-0.0039420002 0.081426002 0.023182999 4278190080 0 0 0 0
-0.010274 0.098800004 0.021305 4278190080 0 0 0 0
-0.010274 0.081426002 0.021305 4278190080 0 0 0 0
-0.015825 0.098800004 0.017701 4278190080 0 0 0 0
-0.015825 0.081426002 0.017701 4278190080 0 0 0 0
-0.020145999 0.081426002 0.012663 4278190080 0 0 0 0
-0.020145999 0.098800004 0.012663 4278190080 0 0 0 0
-0.022887001 0.081426002 0.0065990002 4278190080 0 0 0 0
-0.022887001 0.098800004 0.0065990002 4278190080 0 0 0 0
-0.023825999 0.081426002 -0 4278190080 0 0 0 0
-0.023825999 0.098800004 -0 4278190080 0 0 0 0
-0.022887001 0.081426002 -0.0065990002 4278190080 0 0 0 0
-0.022887001 0.098800004 -0.0065990002 4278190080 0 0 0 0
-0.020145999 0.081426002 -0.012662 4278190080 0 0 0 0
-0.020145999 0.098800004 -0.012662 4278190080 0 0 0 0
-0.015825 0.081426002 -0.0177 4278190080 0 0 0 0
-0.015825 0.098800004 -0.0177 4278190080 0 0 0 0
-0.010274 0.098800004 -0.021305 4278190080 0 0 0 0
-0.010274 0.081426002 -0.021305 4278190080 0 0 0 0
-0.0039420002 0.098800004 -0.023182999 4278190080 0 0 0 0
-0.0039420002 0.081426002 -0.023182999 4278190080 0 0 0 0
0.002656 0.098800004 -0.023182999 4278190080 0 0 0 0
0.002656 0.081426002 -0.023182999 4278190080 0 0 0 0
0.0089880005 0.098800004 -0.021305 4278190080 0 0 0 0
0.0089880005 0.081426002 -0.021305 4278190080 0 0 0 0
0.014539 0.098800004 -0.0177 4278190080 0 0 0 0
0.014539 0.081426002 -0.0177 4278190080 0 0 0 0
0.018859999 0.081426002 -0.012662 4278190080 0 0 0 0
0.018859999 0.098800004 -0.012662 4278190080 0 0 0 0
0.021601001 0.081426002 -0.0065990002 4278190080 0 0 0 0
0.021601001 0.098800004 -0.0065990002 4278190080 0 0 0 0
0.022539999 0.081426002 -0 4278190080 0 0 0 0
0.022539999 0.098800004 -0 4278190080 0 0 0 0
-0.00064300001 0.098800004 -0 4278190080 0 0 0 0
-0.00064300001 0.081426002 -0 4278190080 0 0 0 0
